-28959. -2069620. 0. 771041. -1269620. 400000.  
800000. 800000. 4000. 
2 2 101 
276. 900. 0. 0. 0.3e-11 1.2
-28959 -2069620 0 347.3399 0.0 0.1179E+01 
 771041 -2069620 0 347.3399 0.0 0.1179E+01 
 -28959 -1269620 0 347.3399 0.0 0.1179E+01 
 771041 -1269620 0 347.3399 0.0 0.1179E+01
-28959 -2069620 4000 333.6022 0.0 0.7953E+00 
 771041 -2069620 4000 333.6022 0.0 0.7953E+00 
 -28959 -1269620 4000 333.6022 0.0 0.7953E+00 
 771041 -1269620 4000 333.6022 0.0 0.7953E+00
-28959 -2069620 8000 319.6438 0.0 0.5193E+00 
 771041 -2069620 8000 319.6438 0.0 0.5193E+00 
 -28959 -1269620 8000 319.6438 0.0 0.5193E+00 
 771041 -1269620 8000 319.6438 0.0 0.5193E+00
-28959 -2069620 12000 297.4461 0.0 0.3382E+00 
 771041 -2069620 12000 297.4461 0.0 0.3382E+00 
 -28959 -1269620 12000 297.4461 0.0 0.3382E+00 
 771041 -1269620 12000 297.4461 0.0 0.3382E+00
-28959 -2069620 16000 283.6117 0.0 0.1931E+00 
 771041 -2069620 16000 283.6117 0.0 0.1931E+00 
 -28959 -1269620 16000 283.6117 0.0 0.1931E+00 
 771041 -1269620 16000 283.6117 0.0 0.1931E+00
-28959 -2069620 20000 288.9191 0.0 0.9530E-01 
 771041 -2069620 20000 288.9191 0.0 0.9530E-01 
 -28959 -1269620 20000 288.9191 0.0 0.9530E-01 
 771041 -1269620 20000 288.9191 0.0 0.9530E-01
-28959 -2069620 24000 296.0652 0.0 0.4805E-01 
 771041 -2069620 24000 296.0652 0.0 0.4805E-01 
 -28959 -1269620 24000 296.0652 0.0 0.4805E-01 
 771041 -1269620 24000 296.0652 0.0 0.4805E-01
-28959 -2069620 28000 301.9555 0.0 0.2514E-01 
 771041 -2069620 28000 301.9555 0.0 0.2514E-01 
 -28959 -1269620 28000 301.9555 0.0 0.2514E-01 
 771041 -1269620 28000 301.9555 0.0 0.2514E-01
-28959 -2069620 32000 308.3780 0.0 0.1345E-01 
 771041 -2069620 32000 308.3780 0.0 0.1345E-01 
 -28959 -1269620 32000 308.3780 0.0 0.1345E-01 
 771041 -1269620 32000 308.3780 0.0 0.1345E-01
-28959 -2069620 36000 316.1600 0.0 0.7333E-02 
 771041 -2069620 36000 316.1600 0.0 0.7333E-02 
 -28959 -1269620 36000 316.1600 0.0 0.7333E-02 
 771041 -1269620 36000 316.1600 0.0 0.7333E-02
-28959 -2069620 40000 323.2447 0.0 0.4130E-02 
 771041 -2069620 40000 323.2447 0.0 0.4130E-02 
 -28959 -1269620 40000 323.2447 0.0 0.4130E-02 
 771041 -1269620 40000 323.2447 0.0 0.4130E-02
-28959 -2069620 44000 327.9958 0.0 0.2410E-02 
 771041 -2069620 44000 327.9958 0.0 0.2410E-02 
 -28959 -1269620 44000 327.9958 0.0 0.2410E-02 
 771041 -1269620 44000 327.9958 0.0 0.2410E-02
-28959 -2069620 48000 328.8292 0.0 0.1454E-02 
 771041 -2069620 48000 328.8292 0.0 0.1454E-02 
 -28959 -1269620 48000 328.8292 0.0 0.1454E-02 
 771041 -1269620 48000 328.8292 0.0 0.1454E-02
-28959 -2069620 52000 325.8570 0.0 0.8956E-03 
 771041 -2069620 52000 325.8570 0.0 0.8956E-03 
 -28959 -1269620 52000 325.8570 0.0 0.8956E-03 
 771041 -1269620 52000 325.8570 0.0 0.8956E-03
-28959 -2069620 56000 320.2463 0.0 0.5534E-03 
 771041 -2069620 56000 320.2463 0.0 0.5534E-03 
 -28959 -1269620 56000 320.2463 0.0 0.5534E-03 
 771041 -1269620 56000 320.2463 0.0 0.5534E-03
-28959 -2069620 60000 313.2581 0.0 0.3382E-03 
 771041 -2069620 60000 313.2581 0.0 0.3382E-03 
 -28959 -1269620 60000 313.2581 0.0 0.3382E-03 
 771041 -1269620 60000 313.2581 0.0 0.3382E-03
-28959 -2069620 64000 306.0685 0.0 0.2022E-03 
 771041 -2069620 64000 306.0685 0.0 0.2022E-03 
 -28959 -1269620 64000 306.0685 0.0 0.2022E-03 
 771041 -1269620 64000 306.0685 0.0 0.2022E-03
-28959 -2069620 68000 299.5975 0.0 0.1174E-03 
 771041 -2069620 68000 299.5975 0.0 0.1174E-03 
 -28959 -1269620 68000 299.5975 0.0 0.1174E-03 
 771041 -1269620 68000 299.5975 0.0 0.1174E-03
-28959 -2069620 72000 294.5392 0.0 0.6607E-04 
 771041 -2069620 72000 294.5392 0.0 0.6607E-04 
 -28959 -1269620 72000 294.5392 0.0 0.6607E-04 
 771041 -1269620 72000 294.5392 0.0 0.6607E-04
-28959 -2069620 76000 289.0093 0.0 0.3675E-04 
 771041 -2069620 76000 289.0093 0.0 0.3675E-04 
 -28959 -1269620 76000 289.0093 0.0 0.3675E-04 
 771041 -1269620 76000 289.0093 0.0 0.3675E-04
-28959 -2069620 80000 280.9743 0.0 0.2011E-04 
 771041 -2069620 80000 280.9743 0.0 0.2011E-04 
 -28959 -1269620 80000 280.9743 0.0 0.2011E-04 
 771041 -1269620 80000 280.9743 0.0 0.2011E-04
-28959 -2069620 84000 272.8278 0.0 0.1061E-04 
 771041 -2069620 84000 272.8278 0.0 0.1061E-04 
 -28959 -1269620 84000 272.8278 0.0 0.1061E-04 
 771041 -1269620 84000 272.8278 0.0 0.1061E-04
-28959 -2069620 88000 266.4337 0.0 0.5332E-05 
 771041 -2069620 88000 266.4337 0.0 0.5332E-05 
 -28959 -1269620 88000 266.4337 0.0 0.5332E-05 
 771041 -1269620 88000 266.4337 0.0 0.5332E-05
-28959 -2069620 92000 263.3437 0.0 0.2557E-05 
 771041 -2069620 92000 263.3437 0.0 0.2557E-05 
 -28959 -1269620 92000 263.3437 0.0 0.2557E-05 
 771041 -1269620 92000 263.3437 0.0 0.2557E-05
-28959 -2069620 96000 264.8430 0.0 0.1185E-05 
 771041 -2069620 96000 264.8430 0.0 0.1185E-05 
 -28959 -1269620 96000 264.8430 0.0 0.1185E-05 
 771041 -1269620 96000 264.8430 0.0 0.1185E-05
-28959 -2069620 100000 272.2651 0.0 0.5391E-06 
 771041 -2069620 100000 272.2651 0.0 0.5391E-06 
 -28959 -1269620 100000 272.2651 0.0 0.5391E-06 
 771041 -1269620 100000 272.2651 0.0 0.5391E-06
-28959 -2069620 104000 287.3193 0.0 0.2460E-06 
 771041 -2069620 104000 287.3193 0.0 0.2460E-06 
 -28959 -1269620 104000 287.3193 0.0 0.2460E-06 
 771041 -1269620 104000 287.3193 0.0 0.2460E-06
-28959 -2069620 108000 310.2235 0.0 0.1162E-06 
 771041 -2069620 108000 310.2235 0.0 0.1162E-06 
 -28959 -1269620 108000 310.2235 0.0 0.1162E-06 
 771041 -1269620 108000 310.2235 0.0 0.1162E-06
-28959 -2069620 112000 340.4246 0.0 0.5818E-07 
 771041 -2069620 112000 340.4246 0.0 0.5818E-07 
 -28959 -1269620 112000 340.4246 0.0 0.5818E-07 
 771041 -1269620 112000 340.4246 0.0 0.5818E-07
-28959 -2069620 116000 376.5752 0.0 0.3128E-07 
 771041 -2069620 116000 376.5752 0.0 0.3128E-07 
 -28959 -1269620 116000 376.5752 0.0 0.3128E-07 
 771041 -1269620 116000 376.5752 0.0 0.3128E-07
-28959 -2069620 120000 415.1277 0.0 0.1823E-07 
 771041 -2069620 120000 415.1277 0.0 0.1823E-07 
 -28959 -1269620 120000 415.1277 0.0 0.1823E-07 
 771041 -1269620 120000 415.1277 0.0 0.1823E-07
-28959 -2069620 124000 445.9498 0.0 0.1180E-07 
 771041 -2069620 124000 445.9498 0.0 0.1180E-07 
 -28959 -1269620 124000 445.9498 0.0 0.1180E-07 
 771041 -1269620 124000 445.9498 0.0 0.1180E-07
-28959 -2069620 128000 467.8904 0.0 0.8258E-08 
 771041 -2069620 128000 467.8904 0.0 0.8258E-08 
 -28959 -1269620 128000 467.8904 0.0 0.8258E-08 
 771041 -1269620 128000 467.8904 0.0 0.8258E-08
-28959 -2069620 132000 486.2644 0.0 0.6014E-08 
 771041 -2069620 132000 486.2644 0.0 0.6014E-08 
 -28959 -1269620 132000 486.2644 0.0 0.6014E-08 
 771041 -1269620 132000 486.2644 0.0 0.6014E-08
-28959 -2069620 136000 501.8692 0.0 0.4512E-08 
 771041 -2069620 136000 501.8692 0.0 0.4512E-08 
 -28959 -1269620 136000 501.8692 0.0 0.4512E-08 
 771041 -1269620 136000 501.8692 0.0 0.4512E-08
-28959 -2069620 140000 515.3082 0.0 0.3464E-08 
 771041 -2069620 140000 515.3082 0.0 0.3464E-08 
 -28959 -1269620 140000 515.3082 0.0 0.3464E-08 
 771041 -1269620 140000 515.3082 0.0 0.3464E-08
-28959 -2069620 144000 527.0485 0.0 0.2707E-08 
 771041 -2069620 144000 527.0485 0.0 0.2707E-08 
 -28959 -1269620 144000 527.0485 0.0 0.2707E-08 
 771041 -1269620 144000 527.0485 0.0 0.2707E-08
-28959 -2069620 148000 537.4560 0.0 0.2147E-08 
 771041 -2069620 148000 537.4560 0.0 0.2147E-08 
 -28959 -1269620 148000 537.4560 0.0 0.2147E-08 
 771041 -1269620 148000 537.4560 0.0 0.2147E-08
-28959 -2069620 152000 546.8196 0.0 0.1722E-08 
 771041 -2069620 152000 546.8196 0.0 0.1722E-08 
 -28959 -1269620 152000 546.8196 0.0 0.1722E-08 
 771041 -1269620 152000 546.8196 0.0 0.1722E-08
-28959 -2069620 156000 555.3667 0.0 0.1395E-08 
 771041 -2069620 156000 555.3667 0.0 0.1395E-08 
 -28959 -1269620 156000 555.3667 0.0 0.1395E-08 
 771041 -1269620 156000 555.3667 0.0 0.1395E-08
-28959 -2069620 160000 563.2757 0.0 0.1139E-08 
 771041 -2069620 160000 563.2757 0.0 0.1139E-08 
 -28959 -1269620 160000 563.2757 0.0 0.1139E-08 
 771041 -1269620 160000 563.2757 0.0 0.1139E-08
-28959 -2069620 164000 570.6926 0.0 0.9366E-09 
 771041 -2069620 164000 570.6926 0.0 0.9366E-09 
 -28959 -1269620 164000 570.6926 0.0 0.9366E-09 
 771041 -1269620 164000 570.6926 0.0 0.9366E-09
-28959 -2069620 168000 577.7105 0.0 0.7748E-09 
 771041 -2069620 168000 577.7105 0.0 0.7748E-09 
 -28959 -1269620 168000 577.7105 0.0 0.7748E-09 
 771041 -1269620 168000 577.7105 0.0 0.7748E-09
-28959 -2069620 172000 584.4200 0.0 0.6443E-09 
 771041 -2069620 172000 584.4200 0.0 0.6443E-09 
 -28959 -1269620 172000 584.4200 0.0 0.6443E-09 
 771041 -1269620 172000 584.4200 0.0 0.6443E-09
-28959 -2069620 176000 590.8838 0.0 0.5382E-09 
 771041 -2069620 176000 590.8838 0.0 0.5382E-09 
 -28959 -1269620 176000 590.8838 0.0 0.5382E-09 
 771041 -1269620 176000 590.8838 0.0 0.5382E-09
-28959 -2069620 180000 597.1480 0.0 0.4515E-09 
 771041 -2069620 180000 597.1480 0.0 0.4515E-09 
 -28959 -1269620 180000 597.1480 0.0 0.4515E-09 
 771041 -1269620 180000 597.1480 0.0 0.4515E-09
-28959 -2069620 184000 603.2471 0.0 0.3802E-09 
 771041 -2069620 184000 603.2471 0.0 0.3802E-09 
 -28959 -1269620 184000 603.2471 0.0 0.3802E-09 
 771041 -1269620 184000 603.2471 0.0 0.3802E-09
-28959 -2069620 188000 609.2048 0.0 0.3212E-09 
 771041 -2069620 188000 609.2048 0.0 0.3212E-09 
 -28959 -1269620 188000 609.2048 0.0 0.3212E-09 
 771041 -1269620 188000 609.2048 0.0 0.3212E-09
-28959 -2069620 192000 615.0375 0.0 0.2723E-09 
 771041 -2069620 192000 615.0375 0.0 0.2723E-09 
 -28959 -1269620 192000 615.0375 0.0 0.2723E-09 
 771041 -1269620 192000 615.0375 0.0 0.2723E-09
-28959 -2069620 196000 620.7549 0.0 0.2315E-09 
 771041 -2069620 196000 620.7549 0.0 0.2315E-09 
 -28959 -1269620 196000 620.7549 0.0 0.2315E-09 
 771041 -1269620 196000 620.7549 0.0 0.2315E-09
-28959 -2069620 200000 626.3624 0.0 0.1974E-09 
 771041 -2069620 200000 626.3624 0.0 0.1974E-09 
 -28959 -1269620 200000 626.3624 0.0 0.1974E-09 
 771041 -1269620 200000 626.3624 0.0 0.1974E-09
-28959 -2069620 204000 631.8612 0.0 0.1688E-09 
 771041 -2069620 204000 631.8612 0.0 0.1688E-09 
 -28959 -1269620 204000 631.8612 0.0 0.1688E-09 
 771041 -1269620 204000 631.8612 0.0 0.1688E-09
-28959 -2069620 208000 637.2506 0.0 0.1447E-09 
 771041 -2069620 208000 637.2506 0.0 0.1447E-09 
 -28959 -1269620 208000 637.2506 0.0 0.1447E-09 
 771041 -1269620 208000 637.2506 0.0 0.1447E-09
-28959 -2069620 212000 642.5274 0.0 0.1243E-09 
 771041 -2069620 212000 642.5274 0.0 0.1243E-09 
 -28959 -1269620 212000 642.5274 0.0 0.1243E-09 
 771041 -1269620 212000 642.5274 0.0 0.1243E-09
-28959 -2069620 216000 647.6871 0.0 0.1071E-09 
 771041 -2069620 216000 647.6871 0.0 0.1071E-09 
 -28959 -1269620 216000 647.6871 0.0 0.1071E-09 
 771041 -1269620 216000 647.6871 0.0 0.1071E-09
-28959 -2069620 220000 652.7245 0.0 0.9245E-10 
 771041 -2069620 220000 652.7245 0.0 0.9245E-10 
 -28959 -1269620 220000 652.7245 0.0 0.9245E-10 
 771041 -1269620 220000 652.7245 0.0 0.9245E-10
-28959 -2069620 224000 657.6346 0.0 0.7998E-10 
 771041 -2069620 224000 657.6346 0.0 0.7998E-10 
 -28959 -1269620 224000 657.6346 0.0 0.7998E-10 
 771041 -1269620 224000 657.6346 0.0 0.7998E-10
-28959 -2069620 228000 662.4124 0.0 0.6933E-10 
 771041 -2069620 228000 662.4124 0.0 0.6933E-10 
 -28959 -1269620 228000 662.4124 0.0 0.6933E-10 
 771041 -1269620 228000 662.4124 0.0 0.6933E-10
-28959 -2069620 232000 667.0530 0.0 0.6023E-10 
 771041 -2069620 232000 667.0530 0.0 0.6023E-10 
 -28959 -1269620 232000 667.0530 0.0 0.6023E-10 
 771041 -1269620 232000 667.0530 0.0 0.6023E-10
-28959 -2069620 236000 671.5527 0.0 0.5242E-10 
 771041 -2069620 236000 671.5527 0.0 0.5242E-10 
 -28959 -1269620 236000 671.5527 0.0 0.5242E-10 
 771041 -1269620 236000 671.5527 0.0 0.5242E-10
-28959 -2069620 240000 675.9084 0.0 0.4571E-10 
 771041 -2069620 240000 675.9084 0.0 0.4571E-10 
 -28959 -1269620 240000 675.9084 0.0 0.4571E-10 
 771041 -1269620 240000 675.9084 0.0 0.4571E-10
-28959 -2069620 244000 680.1182 0.0 0.3993E-10 
 771041 -2069620 244000 680.1182 0.0 0.3993E-10 
 -28959 -1269620 244000 680.1182 0.0 0.3993E-10 
 771041 -1269620 244000 680.1182 0.0 0.3993E-10
-28959 -2069620 248000 684.1810 0.0 0.3494E-10 
 771041 -2069620 248000 684.1810 0.0 0.3494E-10 
 -28959 -1269620 248000 684.1810 0.0 0.3494E-10 
 771041 -1269620 248000 684.1810 0.0 0.3494E-10
-28959 -2069620 252000 688.0972 0.0 0.3062E-10 
 771041 -2069620 252000 688.0972 0.0 0.3062E-10 
 -28959 -1269620 252000 688.0972 0.0 0.3062E-10 
 771041 -1269620 252000 688.0972 0.0 0.3062E-10
-28959 -2069620 256000 691.8680 0.0 0.2688E-10 
 771041 -2069620 256000 691.8680 0.0 0.2688E-10 
 -28959 -1269620 256000 691.8680 0.0 0.2688E-10 
 771041 -1269620 256000 691.8680 0.0 0.2688E-10
-28959 -2069620 260000 695.4960 0.0 0.2363E-10 
 771041 -2069620 260000 695.4960 0.0 0.2363E-10 
 -28959 -1269620 260000 695.4960 0.0 0.2363E-10 
 771041 -1269620 260000 695.4960 0.0 0.2363E-10
-28959 -2069620 264000 698.9846 0.0 0.2080E-10 
 771041 -2069620 264000 698.9846 0.0 0.2080E-10 
 -28959 -1269620 264000 698.9846 0.0 0.2080E-10 
 771041 -1269620 264000 698.9846 0.0 0.2080E-10
-28959 -2069620 268000 702.3383 0.0 0.1834E-10 
 771041 -2069620 268000 702.3383 0.0 0.1834E-10 
 -28959 -1269620 268000 702.3383 0.0 0.1834E-10 
 771041 -1269620 268000 702.3383 0.0 0.1834E-10
-28959 -2069620 272000 705.5628 0.0 0.1619E-10 
 771041 -2069620 272000 705.5628 0.0 0.1619E-10 
 -28959 -1269620 272000 705.5628 0.0 0.1619E-10 
 771041 -1269620 272000 705.5628 0.0 0.1619E-10
-28959 -2069620 276000 708.6641 0.0 0.1431E-10 
 771041 -2069620 276000 708.6641 0.0 0.1431E-10 
 -28959 -1269620 276000 708.6641 0.0 0.1431E-10 
 771041 -1269620 276000 708.6641 0.0 0.1431E-10
-28959 -2069620 280000 711.6490 0.0 0.1266E-10 
 771041 -2069620 280000 711.6490 0.0 0.1266E-10 
 -28959 -1269620 280000 711.6490 0.0 0.1266E-10 
 771041 -1269620 280000 711.6490 0.0 0.1266E-10
-28959 -2069620 284000 714.5263 0.0 0.1121E-10 
 771041 -2069620 284000 714.5263 0.0 0.1121E-10 
 -28959 -1269620 284000 714.5263 0.0 0.1121E-10 
 771041 -1269620 284000 714.5263 0.0 0.1121E-10
-28959 -2069620 288000 717.3038 0.0 0.9945E-11 
 771041 -2069620 288000 717.3038 0.0 0.9945E-11 
 -28959 -1269620 288000 717.3038 0.0 0.9945E-11 
 771041 -1269620 288000 717.3038 0.0 0.9945E-11
-28959 -2069620 292000 719.9904 0.0 0.8828E-11 
 771041 -2069620 292000 719.9904 0.0 0.8828E-11 
 -28959 -1269620 292000 719.9904 0.0 0.8828E-11 
 771041 -1269620 292000 719.9904 0.0 0.8828E-11
-28959 -2069620 296000 722.5956 0.0 0.7844E-11 
 771041 -2069620 296000 722.5956 0.0 0.7844E-11 
 -28959 -1269620 296000 722.5956 0.0 0.7844E-11 
 771041 -1269620 296000 722.5956 0.0 0.7844E-11
-28959 -2069620 300000 725.1292 0.0 0.6976E-11 
 771041 -2069620 300000 725.1292 0.0 0.6976E-11 
 -28959 -1269620 300000 725.1292 0.0 0.6976E-11 
 771041 -1269620 300000 725.1292 0.0 0.6976E-11
-28959 -2069620 304000 727.6012 0.0 0.6210E-11 
 771041 -2069620 304000 727.6012 0.0 0.6210E-11 
 -28959 -1269620 304000 727.6012 0.0 0.6210E-11 
 771041 -1269620 304000 727.6012 0.0 0.6210E-11
-28959 -2069620 308000 730.0224 0.0 0.5532E-11 
 771041 -2069620 308000 730.0224 0.0 0.5532E-11 
 -28959 -1269620 308000 730.0224 0.0 0.5532E-11 
 771041 -1269620 308000 730.0224 0.0 0.5532E-11
-28959 -2069620 312000 732.4037 0.0 0.4932E-11 
 771041 -2069620 312000 732.4037 0.0 0.4932E-11 
 -28959 -1269620 312000 732.4037 0.0 0.4932E-11 
 771041 -1269620 312000 732.4037 0.0 0.4932E-11
-28959 -2069620 316000 734.7560 0.0 0.4400E-11 
 771041 -2069620 316000 734.7560 0.0 0.4400E-11 
 -28959 -1269620 316000 734.7560 0.0 0.4400E-11 
 771041 -1269620 316000 734.7560 0.0 0.4400E-11
-28959 -2069620 320000 737.0909 0.0 0.3929E-11 
 771041 -2069620 320000 737.0909 0.0 0.3929E-11 
 -28959 -1269620 320000 737.0909 0.0 0.3929E-11 
 771041 -1269620 320000 737.0909 0.0 0.3929E-11
-28959 -2069620 324000 739.4193 0.0 0.3510E-11 
 771041 -2069620 324000 739.4193 0.0 0.3510E-11 
 -28959 -1269620 324000 739.4193 0.0 0.3510E-11 
 771041 -1269620 324000 739.4193 0.0 0.3510E-11
-28959 -2069620 328000 741.7544 0.0 0.3138E-11 
 771041 -2069620 328000 741.7544 0.0 0.3138E-11 
 -28959 -1269620 328000 741.7544 0.0 0.3138E-11 
 771041 -1269620 328000 741.7544 0.0 0.3138E-11
-28959 -2069620 332000 744.1077 0.0 0.2808E-11 
 771041 -2069620 332000 744.1077 0.0 0.2808E-11 
 -28959 -1269620 332000 744.1077 0.0 0.2808E-11 
 771041 -1269620 332000 744.1077 0.0 0.2808E-11
-28959 -2069620 336000 746.4916 0.0 0.2513E-11 
 771041 -2069620 336000 746.4916 0.0 0.2513E-11 
 -28959 -1269620 336000 746.4916 0.0 0.2513E-11 
 771041 -1269620 336000 746.4916 0.0 0.2513E-11
-28959 -2069620 340000 748.9186 0.0 0.2251E-11 
 771041 -2069620 340000 748.9186 0.0 0.2251E-11 
 -28959 -1269620 340000 748.9186 0.0 0.2251E-11 
 771041 -1269620 340000 748.9186 0.0 0.2251E-11
-28959 -2069620 344000 751.4020 0.0 0.2017E-11 
 771041 -2069620 344000 751.4020 0.0 0.2017E-11 
 -28959 -1269620 344000 751.4020 0.0 0.2017E-11 
 771041 -1269620 344000 751.4020 0.0 0.2017E-11
-28959 -2069620 348000 753.9550 0.0 0.1809E-11 
 771041 -2069620 348000 753.9550 0.0 0.1809E-11 
 -28959 -1269620 348000 753.9550 0.0 0.1809E-11 
 771041 -1269620 348000 753.9550 0.0 0.1809E-11
-28959 -2069620 352000 756.5911 0.0 0.1623E-11 
 771041 -2069620 352000 756.5911 0.0 0.1623E-11 
 -28959 -1269620 352000 756.5911 0.0 0.1623E-11 
 771041 -1269620 352000 756.5911 0.0 0.1623E-11
-28959 -2069620 356000 759.3241 0.0 0.1457E-11 
 771041 -2069620 356000 759.3241 0.0 0.1457E-11 
 -28959 -1269620 356000 759.3241 0.0 0.1457E-11 
 771041 -1269620 356000 759.3241 0.0 0.1457E-11
-28959 -2069620 360000 762.1685 0.0 0.1308E-11 
 771041 -2069620 360000 762.1685 0.0 0.1308E-11 
 -28959 -1269620 360000 762.1685 0.0 0.1308E-11 
 771041 -1269620 360000 762.1685 0.0 0.1308E-11
-28959 -2069620 364000 765.1389 0.0 0.1176E-11 
 771041 -2069620 364000 765.1389 0.0 0.1176E-11 
 -28959 -1269620 364000 765.1389 0.0 0.1176E-11 
 771041 -1269620 364000 765.1389 0.0 0.1176E-11
-28959 -2069620 368000 768.2502 0.0 0.1057E-11 
 771041 -2069620 368000 768.2502 0.0 0.1057E-11 
 -28959 -1269620 368000 768.2502 0.0 0.1057E-11 
 771041 -1269620 368000 768.2502 0.0 0.1057E-11
-28959 -2069620 372000 771.5178 0.0 0.9507E-12 
 771041 -2069620 372000 771.5178 0.0 0.9507E-12 
 -28959 -1269620 372000 771.5178 0.0 0.9507E-12 
 771041 -1269620 372000 771.5178 0.0 0.9507E-12
-28959 -2069620 376000 774.9578 0.0 0.8555E-12 
 771041 -2069620 376000 774.9578 0.0 0.8555E-12 
 -28959 -1269620 376000 774.9578 0.0 0.8555E-12 
 771041 -1269620 376000 774.9578 0.0 0.8555E-12
-28959 -2069620 380000 778.5861 0.0 0.7702E-12 
 771041 -2069620 380000 778.5861 0.0 0.7702E-12 
 -28959 -1269620 380000 778.5861 0.0 0.7702E-12 
 771041 -1269620 380000 778.5861 0.0 0.7702E-12
-28959 -2069620 384000 782.4192 0.0 0.6938E-12 
 771041 -2069620 384000 782.4192 0.0 0.6938E-12 
 -28959 -1269620 384000 782.4192 0.0 0.6938E-12 
 771041 -1269620 384000 782.4192 0.0 0.6938E-12
-28959 -2069620 388000 786.4742 0.0 0.6253E-12 
 771041 -2069620 388000 786.4742 0.0 0.6253E-12 
 -28959 -1269620 388000 786.4742 0.0 0.6253E-12 
 771041 -1269620 388000 786.4742 0.0 0.6253E-12
-28959 -2069620 392000 790.7684 0.0 0.5638E-12 
 771041 -2069620 392000 790.7684 0.0 0.5638E-12 
 -28959 -1269620 392000 790.7684 0.0 0.5638E-12 
 771041 -1269620 392000 790.7684 0.0 0.5638E-12
-28959 -2069620 396000 795.3191 0.0 0.5087E-12 
 771041 -2069620 396000 795.3191 0.0 0.5087E-12 
 -28959 -1269620 396000 795.3191 0.0 0.5087E-12 
 771041 -1269620 396000 795.3191 0.0 0.5087E-12
-28959 -2069620 400000 800.1440 0.0 0.4591E-12 
 771041 -2069620 400000 800.1440 0.0 0.4591E-12 
 -28959 -1269620 400000 800.1440 0.0 0.4591E-12 
 771041 -1269620 400000 800.1440 0.0 0.4591E-12
